3.244499231952064,0.4849131305218932,0.6851550184378912
3.252096978456815,0.4834587511388989,0.6846593576402573
3.2503321934244,0.4843233144370419,0.6834363752353312
3.2584457050912143,0.48243609096591084,0.683420685690502
3.2562135249834445,0.48375764072063066,0.6817249556536852
3.262268625790614,0.4832893668909749,0.6800207242085058
3.1673864405311414,0.5031750366088351,0.6988584013509654
3.166987637364821,0.5045660225415093,0.6996092461520571
3.2546482250770556,0.48847609062797115,0.6701926114696235
3.1773968447876344,0.49863990184409973,0.7051209611977404
3.1775658603818546,0.5007185989004459,0.7060422985505147
3.2637507156864167,0.48428785042015426,0.676603890490395
3.5662039172977207,0.466977923849959,0.6099964229759381
3.5717637936101085,0.46843009207444003,0.609420613187657
3.1707262048553955,0.5025953520675409,0.7013809009453004
3.17073610940158,0.5034194319185955,0.7017613914108175
3.2800548185130043,0.48436421251264916,0.6692142633638708
3.2810471919776676,0.4842050755559734,0.6693212864982315
3.2806259183660895,0.48434250047502536,0.6690675422840325
3.288116363553972,0.48307462603484935,0.6684627059593843
3.2864892342329908,0.48372575476416785,0.6674020091910932
3.292225692325596,0.48303176849817536,0.6657434867621306
3.2987868379232514,0.4828113193456147,0.6640919398923426
3.304938969336491,0.48235020227241066,0.6624473336193838
3.311106965431207,0.481894416682177,0.6608096331239657
3.2776984654724317,0.4820505408110877,0.6756989808047144
3.2826379376584183,0.48126339992374784,0.6761777494298196
3.2807378138790533,0.4820366869222235,0.6749508058091391
3.288035495033644,0.48040633197242816,0.6744968101082571
3.286507219676731,0.48138543929329347,0.6732749746873172
3.29288035628325,0.4810817404784218,0.6716061562537403
3.2987274124389674,0.4804678893781732,0.6699443158193944
3.304818746256556,0.4799922282814105,0.6682894188305839
3.186847033117083,0.4942390254833953,0.7078934810332017
3.1861852394899484,0.49511318678347027,0.7084751462409562
3.2614737373189144,0.48194992656716507,0.6831309279376568
3.268573551972911,0.4808140327301342,0.6839936447131361
3.265104119859067,0.48169977182430535,0.6821201040881979
3.2858223178056436,0.48612814701706636,0.6617252890507379
3.286809399337394,0.4859694591849669,0.6616609517222157
3.286631266407964,0.4860823472255065,0.6615147557056119
3.2938300539071177,0.48484391150345363,0.6607948344752884
3.292681517648931,0.48554961077050374,0.6598666988052287
3.2988783458677116,0.48509747713196494,0.6582256134983717
3.3048415966345908,0.48450731961922033,0.6565914644252159
3.310950933962655,0.4839975209959843,0.6549642163760246
3.3174167199627234,0.4836887007063387,0.653343834291624
3.1741568956334856,0.5020013471433222,0.7038705763634079
3.174551642569674,0.5019330936921305,0.704145056053323
3.1741410691911494,0.5020677058973453,0.7039057346315397
3.295048265074357,0.4819714842812615,0.6680395010186978
3.295904158230237,0.48183564347491176,0.6679579750741201
3.2957550077459925,0.48191592560898006,0.6678473810651436
3.302678671090545,0.4807632673768643,0.6669581637990308
3.3014520046900824,0.48120317126538636,0.666194141790941
3.308059133964332,0.4810142653824966,0.6645478273990028
3.314290397982421,0.4806034367019768,0.6629084033394718
3.320416476695463,0.48012787595396816,0.6612758352029333
3.2926329469518807,0.47967882774946996,0.6745048660746661
3.2987494622437707,0.4787145137328757,0.6753818832571025
3.2958639899672106,0.4796223075142599,0.6736977546194914
3.3022999340696515,0.47935980496963837,0.6720343071507787
3.3081859468644854,0.47877278649386207,0.670377786865157
3.314659088949589,0.47852357080565955,0.6687281596162967
3.3003189567688795,0.4838084619170583,0.6607466942192638
3.3026581238312174,0.4834363309562802,0.6608295520282458
3.3019716881209296,0.4837649489422488,0.6603399340861623
3.310549964673983,0.4821852548510651,0.6603973106000451
3.3081565153818495,0.4833104738815285,0.6587039918306097
3.314512456588902,0.48295069805654933,0.6570749357116537
3.320266692459426,0.4822409987825568,0.6554527309341925
3.32615934607414,0.4816074238262656,0.6538373428509464
3.332688623701235,0.4813362830666313,0.6522287369629002
3.1811745591566534,0.4979933650795791,0.7074843838795901
3.1808147355091325,0.4992593511876662,0.7081711060234639
3.1679132701878965,0.5059005887555498,0.6999847005526932
3.17815764926075,0.5013105024124744,0.7061599096090695
3.5723963967938097,0.46855373862055477,0.6093406766033806
3.1719675538347953,0.5051926407218932,0.702260663973611
3.1845072319138263,0.497424456488691,0.7100012639600631
3.1844003791438578,0.49798545469395317,0.7102921800216706
3.3133548782263373,0.48174223019293266,0.6602205237475705
3.3185389393954274,0.48092566887231214,0.6600128855624712
3.317329955580357,0.481466560016029,0.6591788037304247
3.323468454784914,0.480986181933992,0.6575548109072578
3.3294179976775364,0.480393215790722,0.6559376202676263
3.335953665580028,0.4801342437925115,0.6543271975698294
3.341856391854799,0.4795071628240111,0.6527235087177471
3.3477927097692928,0.4788959435418816,0.6511265197612557
3.309332896095011,0.4797147866752069,0.6670992567672349
3.3122028874310856,0.4792640493845242,0.667301408095484
3.31106020733592,0.4795998395997864,0.666641430869622
3.3174575327456464,0.4792938526670668,0.6650003176554873
3.3236343613074975,0.4788559468893104,0.6633660450444495
3.329702174924196,0.4783510441195287,0.66173857903066
3.3359388350156185,0.47794013235788685,0.6601178857467155
3.318588195670045,0.483575128797177,0.6530280039785276
3.3239576489398135,0.4827269792735259,0.6522058132640065
3.323422948074758,0.48311243159805206,0.6517302832638476
3.3326519478089267,0.4813602315367258,0.6521979476813682
3.3302513237580276,0.4830037406223536,0.6501235285359521
3.336116718713269,0.48233972989542795,0.6485235355030001
3.342538258783992,0.4819905412267102,0.6469302697122152
3.347963236435707,0.4810678461774397,0.6453436968633098
3.3538411914976374,0.4804009835832656,0.6437637828087823
3.1759823773627773,0.5044936362744987,0.7045477459949908
3.1822757728738265,0.5006014766453553,0.708405685087192
3.1700513948426083,0.5083459758280525,0.7005610814234244
3.3256231403201673,0.47981448455339215,0.6599315071966244
3.327039341163275,0.47959299238702674,0.6598798368309281
3.3267276130812355,0.47975547395194623,0.6596500887209782
3.3353069773325585,0.4783042038217682,0.6596305846032788
3.333042967012169,0.47938159855075996,0.658031129766736
3.3388514564642064,0.4787114656545802,0.6564189243553767
3.345235927914354,0.47837002345064944,0.6548134386445839
3.3517828760300534,0.47811826788192996,0.6532146389349953
3.357574557088367,0.4774279434020898,0.6516224916706186
3.332850899460619,0.4813290510980381,0.6521886671941526
3.3407534299022257,0.4800939488787461,0.6518916229348601
3.339186612356406,0.4810431840105009,0.6506268789197172
3.347543972377596,0.47903792999378797,0.6509322046919997
3.3451960203098063,0.4804660616612927,0.6490317345201259
3.3513761843177026,0.4799834005581291,0.6474432697122741
3.3572534108141054,0.47932368395823244,0.6458614505940589
3.3625609679914708,0.4783340613323892,0.6442862434134267
3.3690265807349697,0.478005044351451,0.642717614568647
3.3744175833024563,0.477056797894835,0.6411555306085611
3.180197374826775,0.5037619685013053,0.7067621820968336
3.1743488324094833,0.507591810773972,0.7027518609596646
3.3199506543751287,0.47805166394033893,0.6672765485281686
3.3209521907595576,0.47789540995960117,0.6672629885382857
3.320647559268933,0.47798836920901794,0.6670853913913877
3.3299411912844437,0.47649776702846586,0.6673375517810981
3.3266228707058896,0.47744171470901564,0.6654494483117913
3.3331835412579793,0.4772310876308126,0.6638202966336605
3.339180846984843,0.4766895532778563,0.6621979027485274
3.344998860921412,0.4760403803378449,0.6605822331838607
3.5777724649168285,0.4702413031358823,0.6088887608459805
3.186561967148236,0.4998657509406989,0.7105898546505425
3.339109120506433,0.4777139423339939,0.6592902687575646
3.3426536765815733,0.4771650411161898,0.6589295490421996
3.3420957209873188,0.47747925606899566,0.6585039314641851
3.348419496261603,0.4771110862158909,0.6568966825941117
3.3543606246132707,0.4765181535780661,0.6552961056874833
3.3608262419915738,0.4762243818171249,0.6537021674356721
3.3664525291935705,0.4754427434969213,0.6521148346708501
3.372316623194571,0.47479487568250833,0.6505340743663736
3.3778839108312715,0.47397235776117724,0.6489598536371417
3.178225489447083,0.5069135092587135,0.7050869451654914
3.1848791725254726,0.5029518848770823,0.7088099867780481
3.3488044933112726,0.4788424372408307,0.6508751631343104
3.357208128982216,0.47754338234630894,0.6514010483356777
3.354268242530762,0.4785912713437062,0.649536196896611
3.360309883310221,0.47803362281386297,0.6479525064668075
3.3660859208125795,0.4773200352361702,0.6463754149619069
3.3723103850664686,0.4768606098086526,0.6448048890193413
3.3781638237632827,0.4761848436331521,0.6432408954241899
3.3843810252272006,0.47571451031390083,0.6416834011094302
3.390124095922787,0.47496892842526034,0.6401323731561632
3.3957151140177078,0.4741328887578149,0.6385877787938155
3.358223163086547,0.4800079653206263,0.6426316899285595
3.360208602484689,0.47970037172679403,0.6424063972400843
3.359907290757027,0.47983845627883237,0.6421904935541898
3.368119013560639,0.4784789399334876,0.6420292265708498
3.366039954884875,0.4793106692652201,0.6406237952583917
3.3731917404617002,0.47769908938898437,0.6402226266855913
3.371780140410665,0.47855526752554156,0.639063654233769
3.378088088657436,0.4781211452447031,0.6375100369464178
3.383535343256037,0.4771920241761416,0.6359629100163176
3.38959796329719,0.47661141785598427,0.634422240217475
3.3952451068173475,0.47579025666818375,0.6328879944780451
3.402105121927167,0.4756587855655675,0.6313601398804288
3.4076449429387474,0.47477038399708626,0.6298386436613475
3.172377242834965,0.5107582352732455,0.7010795096348714
3.1772533792748017,0.5098984650514929,0.7030669310003642
3.1826144923400594,0.5061478636777259,0.7072397931457836
3.361812182458592,0.47683479843285076,0.6504279898763289
3.3633078117774886,0.47660508771702104,0.6501018060156042
3.3632086217014643,0.47664345183145285,0.6500369634392155
3.3710765837108156,0.4754156122398438,0.6496304070578822
3.3694354273441265,0.47619678746801075,0.6484580209726607
3.3772292434942877,0.4744779762541144,0.6483618284756225
3.3756357158982153,0.4757313301119375,0.6468856311472717
3.3817671034281567,0.4752227926357104,0.6453197609841154
3.3874131776732153,0.4744319929737258,0.6437603776492847
3.3929347567053356,0.47356630379200915,0.6422074484541543
3.3990099831355782,0.47301571436127265,0.6406609408556083
3.404411911693347,0.47207472333026135,0.6391208224562458
3.4110109022889414,0.4718188361773451,0.6375870610045626
3.38040417753745,0.47659486079553426,0.6396568578939743
3.3808989275038877,0.4765193099735356,0.6397462799133466
3.3806356021577812,0.47657932040794365,0.6395999582328047
3.3893532496525993,0.47523215332311075,0.6396449702453957
3.386876776356104,0.4761117513471408,0.6380508642920043
3.3952607001114457,0.4743370609622969,0.6382662172169811
3.3927877966685456,0.4754518938145314,0.6365082157879511
3.398977374860853,0.4749483043039769,0.6349719798737503
3.404897461702956,0.47428734983978976,0.6334421238539466
3.4106764514850823,0.4735425824194603,0.6319186151846282
3.416881561108619,0.4730385071867829,0.6304014214735073
3.3513145234462507,0.475829378782681,0.6590344609040399
3.351753967571206,0.4757618168512896,0.6590854547061112
3.351574420367608,0.4758265104563194,0.6589732546035936
3.3608107419814117,0.47437384584325815,0.6592159603271327
3.357814294471463,0.4754142545342761,0.657370933808621
3.3637541988495356,0.4748248035347022,0.655775237737268
3.3698168883080877,0.47430280788405166,0.6541861334657305
3.3751801982941565,0.4733729665547939,0.6526035882084885
3.3815229233953756,0.473005970292305,0.65102756931869
3.386902778873312,0.4720789217637193,0.6494580442885117
3.3931330347407203,0.47164007947671915,0.6478949807494914
3.189589426143055,0.5021396399886302,0.7108442781036287
3.1818471245090865,0.5090912736295966,0.7051495681246652
3.1878784728686638,0.5052327883309138,0.7090818108551014
3.3827581234246336,0.4736386940710343,0.6477378201331652
3.384556331078623,0.4733663952827493,0.6476750009678671
3.3841597623282054,0.4735552522900958,0.6473921397399289
3.3917801859455894,0.4722757924178675,0.6469384476391445
3.3902436414912507,0.47302395600209224,0.6458309000736913
3.396227691275839,0.4724317597211409,0.6442761021798473
3.4021411208707324,0.4717955745120056,0.6427277137425342
3.4079462541020025,0.4710937460214052,0.6411857025888397
3.413634723675423,0.47032147393038765,0.6396500366890111
3.419692855325262,0.4697589836172635,0.6381206841566398
3.425704552838504,0.4691665385971334,0.636597613248825
3.4318818256185506,0.4686662322999153,0.6350807923663138
3.4377489992789974,0.4679842880425694,0.6335701900536206
3.1761070943745437,0.5129211269827347,0.7011132976057006
3.180839231145234,0.5120834512989594,0.7031492100779945
3.1863134679199625,0.5083090472684237,0.7072735191925267
3.4106135778671156,0.47460078145133705,0.6291409407554419
3.4151176291768013,0.47392331362088275,0.6290707059902471
3.4141117060660484,0.47440797219522324,0.6283234732118951
3.4200340097648265,0.4737318471726,0.6268145960775717
3.425984761681734,0.47306897459997294,0.6253119799582916
3.4318716835442293,0.472366755096096,0.6238155927083752
3.437732455743343,0.4716467028070908,0.6223254023365177
3.4438337516007835,0.4710609147417278,0.6208413770057405
3.397660854634678,0.4739743977641036,0.6381024141369033
3.4024563388775837,0.47325153403483217,0.6375353811387622
3.4019026427662626,0.4736358912481305,0.6370495854003155
3.4105731609752703,0.47203325466230817,0.637265979432718
3.4083176056855438,0.4732659603358221,0.6355177605022503
3.413980122190848,0.4724616141562172,0.6339922717749925
3.4204544671072834,0.472119262193505,0.6324730870428135
3.4267119957376675,0.4716494496416549,0.6309601742789673
3.432240836036985,0.47075954324349456,0.6294535016057587
3.438230488077962,0.4701303719700729,0.6279530372945865
3.443895068357705,0.46931211648381216,0.6264587497659704
3.449980785295568,0.4687320007314484,0.6249706075895533
3.413206030731445,0.4716394857098462,0.6370430090034978
3.4178020817532913,0.4709537482631041,0.6365533213169037
3.4171709324525765,0.47130725051666755,0.6360596243951098
3.424143225827933,0.4700110532324091,0.6353997689618379
3.4231219470056815,0.47067245562855636,0.6345384806686286
3.4312949493181018,0.4689525737394011,0.6346517302357234
3.429356710244243,0.47019739558117407,0.6330235980121666
3.4377000466655288,0.4680088147323437,0.6335339282604295
3.4349761708654385,0.46936611736558465,0.6315149447591691
3.4409337643510667,0.46872584891845187,0.6300124893895515
3.4471839205361863,0.4682503965036987,0.6285162005297499
3.4530171373330507,0.4675327355786871,0.6270260469527547
3.4210428652126734,0.4730351547501045,0.6295128268853806
3.4253667896953583,0.4723892162589514,0.6299046479351174
3.423789759278835,0.47293287740504375,0.6288905104799805
3.4292887044459253,0.4718049252929349,0.6275366474240344
3.429063657888683,0.4718906334885666,0.6273858501151653
3.4360613845255763,0.4707994725302598,0.6266131755803326
3.4348793211474775,0.47115480659075204,0.625887408441921
3.4420933419018684,0.4699077472442993,0.6253166220355496
3.4407364393274293,0.4704397135038597,0.6243951536748436
3.4499092204369073,0.4687575330311584,0.6249239305538735
3.4468585822749405,0.46987313712729123,0.6229090541802449
3.399235166480393,0.47115578870116304,0.6463506724765773
3.3993030583274266,0.4711456144311318,0.6463500340565626
3.3992839675897226,0.4711518993822941,0.6463383464728355
3.4064060961834204,0.4700836840158116,0.645556513650512
3.405077130112491,0.470453735902416,0.6447881093697019
3.411018398551899,0.4693968013960497,0.6435427093712671
3.410513552026319,0.46954619613798776,0.6432442374914593
3.4189002091113743,0.46822785008074735,0.6431358212606967
3.4167866991558786,0.4691187429136236,0.6417066990299203
3.422533440490135,0.4683839916986806,0.6401754623175552
3.428867289338018,0.4679849662669755,0.6386504958276796
3.4347872841710476,0.467343839054347,0.6371317681746212
3.4407040883143516,0.4666977160381923,0.6356192481138656
3.447005780688677,0.46627040022998373,0.6341129045421796
3.452638559822478,0.4654542841014117,0.6326127064977151
3.192669402430457,0.5044029703059345,0.711086214380639
3.185670508105594,0.5112311982349534,0.7051466203008968
3.191447780827875,0.5074129581429855,0.7091590055806059
3.4402383917184722,0.46763589877915607,0.6329095957670239
3.4436762223505086,0.467131824787194,0.6322049105326715
3.443433371623727,0.46719403362538015,0.6320657749991255
3.451450990247651,0.4659960177342913,0.6317713232212372
3.449787716230206,0.46678628945589257,0.6305675160351512
3.4561171051750597,0.46636094076280915,0.6290753821380216
3.1848643032361563,0.5141882815145782,0.7030826072684561
3.17992279866121,0.5150662909719387,0.701122189626525
3.190162650400887,0.5104414493789186,0.7072596054844081
3.4502362839315457,0.4687095293070215,0.6249089762365451
3.19599609145798,0.5066219197654966,0.7112470795373137
3.4572613747433945,0.4651509418412596,0.6315213628508929
3.459540306288433,0.46482036132061294,0.6314933370216249
3.458967091262532,0.4650361795258286,0.6311186231600917
3.499723636575791,0.3545043986106906,0.6093431041669409
3.1898374316400093,0.513307836984913,0.7050280012444226
3.1951251084506986,0.5095720013890955,0.7092034809463538
3.1849410102951388,0.5169941450433739,0.7007144609136744
3.1894432311158187,0.5161917236277127,0.7028264119271044
3.194198469347363,0.5125383713546874,0.7071850357289142
3.1998481608414293,0.50874739363911,0.7112280331751554
3.490259804496746,0.3578969587785828,0.6119896208780775
3.495324260440381,0.3573551109970026,0.6101867342650971
3.5015848352242562,0.35668760715316106,0.6089429923432548
3.507962524509888,0.356010236109444,0.6077560089028113
3.193966283097571,0.515388233657366,0.7049276485451648
3.198635108210473,0.5117580599560166,0.7093122674120802
3.4978779118094527,0.36185453782289867,0.6088099303327075
3.1983481873415447,0.5146123320997016,0.7070752637917004
3.193703158345186,0.5182486434174067,0.7026869867437376
3.189112281714536,0.519069721009455,0.7006083161393197
3.4915130626246835,0.36015260820488837,0.6112945283199188
3.49686652931171,0.3595761566253739,0.6096272174207735
3.497736300383661,0.3616416368484463,0.6088674122887202
3.503168567199389,0.3588999815892224,0.6084049474087742
3.51013078801315,0.358155993484417,0.6074933862462372
3.2036869219902258,0.5108725980461202,0.7112187887531846
3.198496612773678,0.5173942583778689,0.704690843336008
3.20299700465632,0.5137918596234846,0.709125443369544
3.4940753325104335,0.3646587203680819,0.6099014111639248
3.4996817222515784,0.36404726958072003,0.6083547246495506
3.5058982926175997,0.36337172261294715,0.6070965820411524
3.203206046440314,0.5165577420462395,0.7067206034315237
3.2089233808908864,0.518294241614936,0.7060422985505147
3.1981851792509284,0.5202627008455284,0.7024742712803635
3.193133834881029,0.5211692464275772,0.7005595828762687
3.2029468662116503,0.5194111860957836,0.7044869331028049
3.2088961010864927,0.5183514368102036,0.7059940691114815
3.2081227705547626,0.5128904046027698,0.7110034387330836
3.489729749736474,0.3627384950946126,0.6133382948351906
3.496572571603023,0.36199585126525635,0.6091930136214652
3.4928565560821494,0.3623987593102957,0.6106319820662776
3.4931900393059654,0.3633799090681819,0.6102359124829311
3.5000742394496758,0.3616170228223566,0.6083952721471476
3.504306403270466,0.361160248221051,0.6076490420120214
3.504427668803873,0.36151817303106415,0.6075042631467042
3.5116580264485844,0.3603695960442044,0.6069229189772455
3.519120133526755,0.3595706791205826,0.6062501657442844
3.4912193249524592,0.36736765669765525,0.6114272779144487
3.495975001394142,0.3668442032177851,0.6094812449138906
3.501672464016121,0.36621909808224645,0.6079790216456814
3.508371985355169,0.365486838588678,0.6069504069703081
3.5150062043735186,0.36476466831976345,0.6058931654855985
3.208315515711032,0.5156533939092764,0.7086055368904419
3.2107997835401716,0.5161240946646318,0.7081711060234639
3.2027152646313968,0.5222647999405289,0.7022493456283646
3.2055194960130002,0.5227826321819709,0.7017613914108175
3.4989266786875515,0.3713078667525213,0.6082153353517616
3.504540479343562,0.37068422659363065,0.6066764695733166
3.1977653610230643,0.5231559729347939,0.7003014682483097
3.2015346362668824,0.5237729785954208,0.6996092461520571
3.208472472006098,0.5212323119176684,0.7039091175206893
3.208499348666756,0.5212275020248477,0.7039141610245159
3.2084972234703066,0.5212388074771155,0.7039057346315397
3.2127743137710976,0.5148669383355641,0.7107165469625406
3.215570652709589,0.5155323961644145,0.7102921800216706
3.492231179923672,0.3696542092005448,0.6105803952818576
3.4973880122712315,0.3690829619931192,0.6088233419575074
3.4986840092221483,0.37102767516722124,0.6082723428531247
3.5033391042803266,0.3684259770821491,0.6074422487437565
3.504011328190707,0.36988511197168056,0.6069058242888363
3.509829743176975,0.36771215654868566,0.606317765255725
3.5171808286303774,0.36690712389850266,0.60560114497277
3.4919600583109407,0.36488996624821596,0.6108850737042952
3.4908661153513365,0.36500967618166247,0.6125714229998244
3.490924334512218,0.3668150915882785,0.6116097901435595
3.511075463413727,0.3628110833776192,0.6065282870210835
3.5132293731512596,0.3625783568538205,0.6063641665850634
3.513648311188696,0.3632898718787977,0.6061464387692782
3.5213962662135474,0.3616987088074137,0.6060251783313856
3.2151910238268324,0.5172350727080561,0.707541661058065
3.4949963266655546,0.37414611799101966,0.6092056885428668
3.500185803753722,0.37356404393871245,0.6074655659387983
3.506481684647525,0.3728603612476461,0.6062515913082825
3.5133694807026847,0.37209363023227376,0.6053203648912149
3.5001238491766737,0.38077345112704186,0.6075380280800575
3.5055365672282637,0.3801554297792881,0.6059076629125685
3.5116041267283835,0.37946508434578524,0.6045916399175916
3.4978236875482795,0.37143065176443846,0.6085529158402561
3.4939552540731738,0.37186194519904614,0.6100590027847601
3.494163107202877,0.37275633103504724,0.6096442458613712
3.5084330423982633,0.37025305975058126,0.6061299622691126
3.5113958210690854,0.36992557110202356,0.6057270159292586
3.5119232592383427,0.37063776548739724,0.60554466360497
3.519059218202592,0.36908125247988355,0.6051613991447203
3.5264191902053823,0.3682740763145692,0.6044538759990495
3.49087820947957,0.36740526187978145,0.6117782476521995
3.516653416797739,0.36458581346848984,0.6058960740955824
3.5236371612709374,0.36382950856968926,0.605776045772984
3.4926034564415955,0.3768196500560699,0.6109135343334896
3.4972493799119646,0.37629399733126095,0.608916715316184
3.502560583442798,0.37569491440703034,0.6072359005599849
3.508877889048265,0.37498489189562767,0.6060344819579885
3.515696317989121,0.37422163113586976,0.6050731064424529
3.218682634057442,0.525012801947669,0.703063458838847
3.2257473202779705,0.523744684130908,0.7041912039485757
3.49076428454782,0.36981703576103325,0.6124552036483504
3.521582308279406,0.3664268360130168,0.6054140862562946
3.525594500417045,0.3659901486972865,0.605385973087158
3.5259990953045053,0.36735522007592836,0.6047939129952671
3.5342787496653347,0.36504859838234516,0.6052973526629574
3.49725241599093,0.3835098666283136,0.6089914505084449
3.5020270048267825,0.3829598203757377,0.6070567986394256
3.5081309874269393,0.38225898133257974,0.6057585247822141
3.5144133607753654,0.38154040736628275,0.604547558076981
3.494916299966322,0.37896273650249634,0.6106439250213599
3.498762604790557,0.37852500875781814,0.6082683413175943
3.499601540267886,0.38016515289622943,0.607673290464493
3.503968455492044,0.377934209604577,0.6065384043566947
3.504206376007742,0.3785153158006159,0.606303388800806
3.5106185161303043,0.37718225979333236,0.6054977591852511
3.5108796503131563,0.37834406468521803,0.6049388784299438
3.517700817548169,0.37638480574850053,0.6046648281358445
3.524975550328152,0.37556928050806787,0.6039251496758858
3.49293114228145,0.3743782761479107,0.6103350410408808
3.492387830465536,0.3764722754575171,0.6110215600057841
3.5150937528147628,0.37190219495478316,0.6052608352629122
3.5215787607512476,0.37118401034663484,0.6050165403773977
3.529276523695377,0.3703352034199588,0.6044714659821316
3.0745824155341306,0.3787020976889159,0.7175359477530999
3.0796175788642146,0.3780516028358325,0.7155516524927037
3.0855616092964917,0.37728663850509647,0.7139633535343838
3.492465876732147,0.3720282706840762,0.6127171056683867
3.528245766565177,0.3680743141098717,0.6045451833745205
3.535763794939773,0.367254444466748,0.6046816938689424
3.4994252830942836,0.38566766260166974,0.6086296345162322
3.504706739587017,0.38505591306119635,0.6069386341452297
3.510564334658216,0.38437975887294046,0.6055247909975142
3.5169671998303347,0.3836434499549158,0.6043739710075767
3.523630977349422,0.38288020968323927,0.6033501090707318
3.492506183419114,0.3768306719135755,0.6110971227030043
3.4958523817444744,0.3764518992202433,0.6124464895224819
3.5196802724817107,0.37377713806194307,0.6048662083320224
3.523930877905573,0.3733040878398322,0.6047849869037799
3.524530142419876,0.3747863655342796,0.6041888343664675
3.5317976134959186,0.3724318316854414,0.6043231004543007
3.50797717524679,0.38948810995970046,0.6056767441146005
3.5137158828988166,0.38881783181344837,0.6042093901393332
3.4987783963256693,0.3809273947471679,0.6080491086653858
3.496239957563105,0.38121818561524534,0.6098968783145079
3.4970770315047934,0.38328669744045285,0.6090486102642225
3.516374492046168,0.3789241347617493,0.6040180662673517
3.5188177046469384,0.3786476924574001,0.60382492048516
3.526954661123948,0.3777299995366804,0.6034997731682752
3.071768098436657,0.38180585046790105,0.7192289102251178
3.07617144878097,0.38123118246277393,0.7169703150759426
3.081465542456434,0.3805426148889509,0.715099286025092
3.087547265912726,0.37975475263661634,0.7135728209600718
3.494456471081247,0.37420677744209596,0.6129160743497089
3.5310089678468657,0.37014472115950103,0.6045576567705296
3.5385008327876717,0.3693232990154965,0.6046461493815759
3.501299476847146,0.3878595170747005,0.6081166940190919
3.50602495549541,0.3873089218175332,0.6061602840126848
3.50783156786368,0.3893529212678643,0.6056969169533674
3.5123966079740625,0.3865690607644714,0.6049949815105135
3.513297080473548,0.38832487580705655,0.6043290434774242
3.519100077031342,0.3857938011455314,0.6039909518718751
3.525881618569931,0.3850127588588887,0.6030263446333533
3.075768664174668,0.38950691840818275,0.7171404469045735
3.0808123022059686,0.38883501108184926,0.71516134744859
3.086229766333356,0.3881159543075679,0.7133481121156245
3.505020303268667,0.39224534053274746,0.6070510799142351
3.5103825933434396,0.39161350241128295,0.6054029357194689
3.5167885626485615,0.3908614284131613,0.6042592933547017
3.4949237674740705,0.3789618856572299,0.6112050615794764
3.49636336382122,0.37879793181035726,0.6113286508411614
3.5264816812428337,0.3754008905998805,0.6039737929054168
3.53376009689591,0.3745893216406663,0.6039028845884293
3.072791225300635,0.3844132883740011,0.7184085042158033
3.0776551947560207,0.3837740316642723,0.7163495283551107
3.0828629980498747,0.38309200397420745,0.7144422267132988
3.089121019607339,0.3822757253425585,0.7129946120008889
3.0966777700037427,0.38129479588195925,0.7121149171174882
3.496990787540302,0.3835400539106906,0.6091371039005871
3.5174292089862105,0.3811964417344251,0.604437701257224
3.52267209174746,0.3805999910890234,0.6042825946138658
3.523345987293434,0.3822859225747218,0.6035797326392511
3.529888774028825,0.37978212266279937,0.6035213592833563
3.4971073816509257,0.37631004110243715,0.6129654545678931
3.5057044956092334,0.3753412152104623,0.6129018236801281
3.5344100512080874,0.37214309142933355,0.6044298566751012
3.5409883865152487,0.37141805001542527,0.6044860289464162
3.0732787496598206,0.39258933664327,0.7189364129214446
3.0773008276737923,0.39204818199466834,0.7165105962490204
3.082362262602235,0.3913693640413011,0.71454027856301
3.088026761460624,0.39061252867458623,0.7128367561732647
3.0946374375452894,0.38973307409676305,0.7115510979836458
3.507604626902745,0.394351831475016,0.6068538304758074
3.512973985239699,0.3937158548168567,0.6052110116527323
3.5190657765380227,0.392996861524112,0.6039183804973172
3.4960837010797867,0.3812361004825567,0.6116093904787773
3.5008079527801654,0.38069522658012056,0.6120602125836111
3.531387482564081,0.3772319815880392,0.6035140648266442
3.5359803848406846,0.37671739925202086,0.6035966966184678
3.5001609372676694,0.3904048766921568,0.6103698638948014
3.5076472320406507,0.38952671944639666,0.6057827144034899
3.5032540205537352,0.39004155844088606,0.6076335027933916
3.504913411934365,0.392139475922957,0.6070702154344597
3.51535694897772,0.38862659227675905,0.604009687819875
3.5209098248705355,0.3879809277275869,0.6034443380726981
3.528397225248049,0.3871138106062853,0.6028218522743448
3.071406949410179,0.38734122570814483,0.7207018141803387
3.074546355832838,0.38692470475545115,0.7178950968803278
3.075264471354623,0.3885339701938881,0.7174097294339268
3.0793311372521583,0.38629165253687586,0.7158026236129647
3.0797261098189663,0.38702063777352935,0.7156087763860947
3.084612992218162,0.3855953036901278,0.7139288759754349
3.0847792605197855,0.38597037601927525,0.713815254465426
3.0911269307894575,0.38474006594426474,0.712595270084621
3.0991479070064356,0.3836923066673381,0.711921206733338
3.086034320042139,0.3963607901505638,0.7135204548949214
3.497625336820479,0.3858766067494322,0.6096708125307134
3.5249051630683668,0.38273462527224694,0.6033992094747825
3.5324682190883854,0.3818728309932906,0.6033667094777933
3.5020067805986286,0.3781566127362684,0.6124955904720963
3.508045214586241,0.377472868894116,0.6126528039072776
3.5397755082202083,0.37392129546122427,0.6038631674779878
3.5426384614577997,0.3736042155896923,0.6039234392968226
3.0747244450794406,0.3951460971326722,0.7182592383462597
3.078833737127608,0.3945894842920751,0.7158712246157407
3.084176016833794,0.39386826996015284,0.7140251829044691
3.0859672201439583,0.3962731998846579,0.7135376777919972
3.0901411552351794,0.3930661696013287,0.7124555812138837
3.097260907941681,0.39211320568198044,0.7113961884422849
3.50975511580795,0.3965088106459232,0.6064395941376326
3.515341278453868,0.39584358035328404,0.6049031982889111
3.5215286120705462,0.39510943747721206,0.6036591407760263
3.5280880856744914,0.3943341952246516,0.6025969761350194
3.4977930061010944,0.38344750758856255,0.6118903340778331
3.503584710296338,0.38278071891525983,0.6119970786554012
3.5335775997215335,0.3793654600512327,0.6036712115729438
3.539277572925587,0.3787234763843096,0.603794032569529
3.0779187257508025,0.40021897056550204,0.7170075412582899
3.082385019827599,0.39960605980446157,0.714776586866872
3.087672098426982,0.39888300841199603,0.7129092797059484
3.093684163730985,0.3980640782131723,0.7113648856536736
3.0744059259234957,0.3896888709041778,0.7180669319373553
3.072524718349615,0.38994033687727486,0.7199037437906447
3.0728330013910607,0.3916421465484589,0.7192181481336365
3.0926809037597245,0.3872632586857851,0.7120583951197901
3.0927938951410288,0.3872483580968044,0.7120392133659988
3.09280485178814,0.38727838303664874,0.7120291292402982
3.1016806503553096,0.386080111037429,0.7117469093902346
3.5048132748368124,0.39226977675137026,0.6071274983351782
3.5013553686089924,0.3926783881566441,0.6095149444717863
3.5173503965898303,0.39079560971608296,0.6042332765554868
3.5245787044643326,0.3899508453381844,0.6037839090816239
3.5314587389435608,0.3891502662989717,0.6028721918854091
3.4981568524302973,0.38822657640094477,0.6102340311264276
3.499689794524973,0.3899763486640098,0.6104293751739803
3.529591226668542,0.3845868907485591,0.6029991015564429
3.534589083120149,0.3840146589952774,0.6029854984701208
3.542507738221826,0.38311158404282336,0.602567154909124
3.5073760692287226,0.3992091341618894,0.6080633446104583
3.511921487604541,0.39866318933152173,0.6060246655189186
3.5175412970281683,0.3979903240116614,0.6045064203142699
3.5239001202319167,0.39723179211766013,0.6033478823961277
3.530836524752262,0.3964077508946879,0.6024709626560654
3.5187113093747495,0.4050867291698968,0.604870964440807
3.524607297916961,0.4043695359778755,0.6034931227814658
3.5039280782679487,0.38033887087997414,0.6127213620820334
3.5115337699449616,0.3794730745322194,0.612935246929738
3.5429166666795817,0.37594299428150885,0.6038001498878204
3.5454258015756954,0.37566366497836384,0.6038896724008511
3.076409763046852,0.39767045938925316,0.7176769204231767
3.0775158206605875,0.39962579247334834,0.7171449720524363
3.084956604544512,0.3965069992008176,0.7139060801183019
3.080811393119427,0.39707039939604377,0.7154173342751292
3.0809499727856857,0.397342816475307,0.715337580758993
3.0863471871905443,0.3963183656021727,0.7134474620810138
3.0922677536494607,0.3955173009080793,0.7120711823488163
3.092614358853589,0.3964581240402429,0.7117452282994723
3.0995805036788524,0.39453246238421685,0.7111000071473356
3.0879020491706486,0.40710267796166,0.7131481307216835
3.5015286492258335,0.3854237910010688,0.6117023803882152
3.5058032915385144,0.38492914982592563,0.6116625826578926
3.5380282597916812,0.38124181525116146,0.6033206155102201
3.5413128591132086,0.38087004787092077,0.6033850350245812
3.542149901945373,0.3823972391369483,0.6028383102665414
3.5501492956519214,0.3798735833818852,0.6033976874012695
3.0797562051431604,0.40272228352961525,0.7164728137630533
3.0843677628139687,0.40208543206885,0.7143066011135722
3.08983516675204,0.4013330742764271,0.7125206477169495
3.09598286128013,0.4004905620843354,0.7110386609670225
3.073064072981573,0.3926182637731006,0.7195058726391279
3.0970669882943502,0.3894108806254759,0.7115937482373359
3.104131708765764,0.38847710287473314,0.7115291918340211
3.5046215410575376,0.39470607980105366,0.6078686592930566
3.5029413068381867,0.3949059001744941,0.6088374653173341
3.5242283947351294,0.3923896481623182,0.6033398730365521
3.5263422680607954,0.3921415769863033,0.603199301409759
3.526735227444066,0.3927979595250035,0.6029665680126062
3.5340470361007306,0.39124011905234457,0.6026878567766719
3.541759696072672,0.39034199928169006,0.6021810552362182
3.5001435476198046,0.3904069212754169,0.6104625624245829
3.5003913327419736,0.3903777900849539,0.6104798894812171
3.5358666158387284,0.3862527416933287,0.6022419651506662
3.5359664393358816,0.3862412607455073,0.602239841061569
3.544620728614321,0.38524857022152825,0.6021779525622841
3.5094532807752015,0.4013765434192206,0.6075961143006627
3.5144421036184608,0.40077415205328043,0.6057730498984997
3.520014385800763,0.40010350863930677,0.6042338326229991
3.5269837849940915,0.3992679661614198,0.603374011972718
3.5339674919938866,0.398434307710107,0.6025228603000065
3.5157864270684174,0.4078629146452313,0.6061920842120078
3.521176868034557,0.40720153407472154,0.6045685022601102
3.5273349298060372,0.40644867355715536,0.6033208097302263
3.5339496130467594,0.4056431812863559,0.602297722592915
3.5076431799129475,0.3823148928433729,0.6125334125834412
3.513373398652504,0.3816591657981365,0.6124361264563085
3.5451641162637806,0.3780628175607965,0.603941688551158
3.5501074576123894,0.37975951685185766,0.6034466597897293
3.077313390188558,0.40030219008387136,0.7174517832981986
3.0763004609405145,0.40044152404012484,0.7204857461350125
3.0962872968039674,0.3977105676582287,0.711174780823501
3.1020029447040716,0.39693663630452036,0.7108408744677914
3.0777737460943184,0.4057577454690576,0.7184445727017964
3.081512540534018,0.4052365746231391,0.715892902243791
3.0864689650382062,0.40454779688019193,0.7138800248713453
3.0876053577272526,0.40665924598089176,0.7132579437734294
3.0918723880301733,0.4037996474255036,0.712067611944699
3.0985840107907423,0.40287433087453894,0.7108380526169417
3.08496351860276,0.4102734122444772,0.7146768350799141
3.089868647231619,0.40958302804124835,0.7126432756091913
3.0960373898883637,0.4087181908780877,0.7111750040695713
3.074098994307888,0.39523095767564953,0.7201627979488652
3.100771073125687,0.3916451257130393,0.7113562355993652
3.1063745643175777,0.3909002798315999,0.7112125715963766
3.5048010798777622,0.38745136893092064,0.6116258433406063
3.5087645275032253,0.38699045262964155,0.6116721641777892
3.543968717290453,0.3829454449716595,0.6026368946906544
3.552202946096663,0.3820118304006086,0.6029939933204993
3.5054477212756465,0.397023333105085,0.6083787352360843
3.505350821075443,0.39703492374902094,0.6085470334050447
3.505487590821707,0.39729082555150125,0.6084489660474152
3.5304273650397415,0.3940584808129232,0.6026065178501994
3.536619836619122,0.3933305303014275,0.6024885310883349
3.5436639014598463,0.39250583020792573,0.6016634750608091
3.5016522100506533,0.39264327682830463,0.610807118861818
3.504315856070256,0.39232850146951975,0.6109307690798439
3.53541578560369,0.38869134385037163,0.6030143927148777
3.5406794548090077,0.38808260739184997,0.6030845421222685
3.5417610474929795,0.39026795966174127,0.6022259248464227
3.548451348898712,0.3871873750502023,0.6026021570609214
3.5083720405841237,0.4039278023152978,0.6098271983560265
3.5115633700599314,0.4035393828678918,0.6071362198086904
3.5163465678138626,0.402958656175264,0.6052144890646975
3.5168649212421967,0.4035119124143462,0.6050863684949843
3.522342925268026,0.40223307010693365,0.6038831600250307
3.522847445035462,0.4028416531333413,0.6037151184592077
3.5296717491134935,0.401349899796611,0.6032010559499433
3.536429726162291,0.4005390556748006,0.6022434860524114
3.5185571502158117,0.40994237615916146,0.6060286013146304
3.5239813787629837,0.40927358003827236,0.604423610456308
3.530042689428121,0.40852889293602257,0.6031312726539079
3.5365908478651185,0.4077275287439925,0.6020786057077326
3.5117256674967026,0.3842459937081443,0.612263271794808
3.516050478878822,0.38374869201474443,0.612323005624939
3.523847193358254,0.3828554975108054,0.6118261587560344
3.5299507513689674,0.38215924797385875,0.6105348905650674
3.5504025084767052,0.379845108093953,0.6034129309040597
3.076252850955714,0.4032074853933839,0.7188315294381449
3.0761173349914412,0.4032262780847491,0.7190679658587042
3.07619312694953,0.40350568838828604,0.7189598866192056
3.100710317137086,0.399845162471508,0.7107200334329826
3.1043239743909625,0.39935326419271605,0.7105289284469548
3.0756849651631035,0.39776944795790836,0.7206429610283431
3.0763226569972333,0.3993189997800587,0.7210340671014399
3.104251063491819,0.39390609696644363,0.7111968626154938
3.109131203303413,0.39325380869435983,0.711112601663809
3.082988727697275,0.4133174371770671,0.7166243064899515
3.087049673164938,0.41274056649072405,0.7142147957639602
3.092320836741708,0.41199425625565755,0.7123458376177476
3.0983994045726115,0.4111370837309549,0.7108400449627417
3.079583216178284,0.40826774049403547,0.7178789218810936
3.0861829946159656,0.40734287080060355,0.7139120115454316
3.083283754295357,0.4077486269992038,0.7153099888375999
3.083791285689836,0.408622710615068,0.7150642727134596
3.089721086003576,0.4068488333033182,0.7127362137378734
3.0942479839664725,0.40621852512692036,0.711755906471248
3.094905609973784,0.40730590977780007,0.7114591257395081
3.101025336693215,0.40527862942685783,0.7105586191006792
3.506885707360423,0.38961586205846443,0.6118302606764859
3.5117140447730106,0.3890513757766403,0.6116691305443566
3.548077981101979,0.38485347090906563,0.6023699479480643
3.505640554291338,0.39941799152378715,0.6090425726237152
3.535829060157547,0.3958168163564356,0.6020592638258306
3.53844755085365,0.3955076071586039,0.601921883208581
3.547212695158287,0.3944761694483795,0.6019299022922294
3.504222944134517,0.3947534637468349,0.6109070090043459
3.5072895541342994,0.3943892161650965,0.6109208477843033
3.5419804893903044,0.39031635092428896,0.6021970212008646
3.5504827963426497,0.3893313154407011,0.6021592002899627
3.5163204032673625,0.4126428933660705,0.6076650335073693
3.521206049685811,0.41203556187027063,0.6057981444063598
3.5267742385818566,0.4113456312760173,0.6042655798028657
3.533018342108676,0.4105747833269643,0.6030651730279433
3.5398352379568903,0.40973662163041746,0.6021466594285682
3.5156005376983033,0.3861981253219598,0.6120447344953359
3.518577341010873,0.38585414087090075,0.6121317872606163
3.525809350876167,0.3850210649188525,0.611372441547014
3.085125002258596,0.41578023388773033,0.7161751700490719
3.0892754079988967,0.41518713351488745,0.7138060676339971
3.0945878081477183,0.41443052852659323,0.7119573529535957
3.100933032719321,0.41353055148242046,0.7105733768377076
3.1079409635001043,0.41254126000020924,0.7094888426020072
3.078163516923394,0.4057033486339648,0.7192232115599637
3.104634301398058,0.4020439303015204,0.710433787968082
3.106920479141396,0.4017310711039113,0.7103304163071047
3.510396909800126,0.40610257158731583,0.6093182714280188
3.5134595964026265,0.40572776564641866,0.6064145847338769
3.513293066237977,0.4057481269505239,0.6064829223157974
3.5133520920594057,0.40581927350866803,0.6064630775515539
3.527249746987948,0.4040489554748529,0.6032095577706181
3.5319341046112585,0.4034819382198269,0.6028136662488948
3.533682316025527,0.405384387763293,0.6023493001649944
3.5391838019268755,0.40260762786159854,0.6020980712626861
3.546609685405023,0.40171611055009776,0.6014693430563175
3.077269734498351,0.4003081931019101,0.7211309260126981
3.077864969780059,0.40022635931453227,0.7211681274786159
3.107608633931197,0.39618060173295033,0.7110825956285278
3.1118088673497803,0.39561606086849394,0.7109704631437131
3.509815135981689,0.39168026671893047,0.6118408983649185
3.5147138925349024,0.391104673274989,0.6116829169527096
3.5496940497192955,0.38704462404010426,0.6026691264168057
3.0936977384341353,0.42008183270915334,0.7129492761293984
3.0824996937728355,0.4106210966916618,0.7161827692948975
3.0812142555349924,0.4108027339005197,0.7172247820825322
3.0820757195134716,0.4121358974563449,0.7168781478387528
3.0993234798299443,0.40825902914791573,0.7105851552067947
3.1029423754499925,0.4077545952374764,0.7100378454957248
3.112081083845476,0.4064864678402141,0.7098953929121125
3.507069006487736,0.3968295076598902,0.6109459497843782
3.5102907995139683,0.3964449187300523,0.6109169877901233
3.546866449679227,0.3921320604696006,0.6017644992530912
3.5066897524451277,0.40171103866555724,0.6095113611082129
3.5083423984085647,0.4038982304615872,0.6098331960518518
3.536790271640896,0.3980983641490958,0.60252996090278
3.542578974400861,0.3974112637411037,0.6024601460315974
3.550571652004241,0.396466564471439,0.6020980871565056
3.518778471030827,0.38822849126213094,0.6119916985002075
3.5214637027536324,0.3879166462024287,0.6121028456727826
3.5285362671526093,0.38709774583739814,0.6112711945206228
3.5187627933992487,0.41476369010829195,0.6073244509781865
3.5236133538151035,0.41415765062014204,0.6054418223828311
3.5294463102583027,0.41343128717648936,0.6040409457989849
3.5359610224985505,0.4126231313959266,0.6029756970986956
3.5421086383916642,0.4118635011676412,0.6017326709686732
3.084250933998629,0.418676154638151,0.718593063403713
3.0873330216130848,0.418231968928644,0.7157491183144173
3.091599619374461,0.41761867916106504,0.7134326475731458
3.0935292331068434,0.4199080618392313,0.7129760272053464
3.0971953457841845,0.41681715047290957,0.71171273230252
3.103695563222006,0.4158900465198737,0.7104010368762974
3.1108013886616077,0.41488143071895256,0.7093636084859666
3.080541077504921,0.40813324037360804,0.7194641901887273
3.1076097563570437,0.404369776775545,0.7104632312144373
3.1100420420377644,0.404035108924428,0.710356269069167
3.111728269694795,0.4060934921631883,0.7099601975259108
3.07963165979633,0.40273951196602037,0.7213639969090524
3.0816509962312946,0.4024603632068925,0.7214879568242127
3.110223282233968,0.3985529129245058,0.7112158105229558
3.1153368498482137,0.3978618314993921,0.7111936103940483
3.5138498483375407,0.3936123130166386,0.6115962709293604
3.5175772864959853,0.3931722932233617,0.6116248560487716
3.5250846570143852,0.39228912356865375,0.6110045916804135
3.532069820771312,0.39147104616441775,0.6101381550368012
3.5541708982505127,0.38890561890096803,0.6023253400559185
3.553990781860877,0.39059755925795636,0.6028383102665414
3.513712616555936,0.4081179519832202,0.6070795941310324
3.512473106444627,0.4082705442472324,0.6088254542189357
3.5342956963119123,0.40560112822178457,0.6022939365389728
3.541830269313499,0.40468781595967995,0.6018929025132581
3.548702137004191,0.40385852549151563,0.6009984137709758
3.091115555692334,0.4232252471011891,0.714586493794618
3.0961170092967896,0.4224977168388555,0.7126011439626766
3.1018779389875717,0.42166291110441434,0.710959898981596
3.0823853288878733,0.41340329414357607,0.717274498871252
3.104755612543649,0.4102446898819536,0.7098199606980352
3.105402150850239,0.4101541417728017,0.7097498034125269
3.105854024350798,0.4106504730171384,0.7096677834308881
3.114786791967879,0.408844447821167,0.7097216594342028
3.50912494648909,0.3989988963036116,0.6111741849773409
3.5137784057854615,0.39844059950425414,0.6111386925313652
3.5493723804596438,0.39422287866551403,0.6018750398858468
3.5211416269645412,0.4168915161760151,0.6069447182308082
3.525975171138839,0.4162845226377035,0.6050550738266134
3.531979673808631,0.41553302034692363,0.6037406269336616
3.5388118238809865,0.41468133562914294,0.602833913373748
3.545071231964976,0.4139042081872724,0.60164831896465
3.52174349190586,0.3902817451939054,0.6119916564447082
3.5244846343418224,0.38996181507481886,0.6121304105416133
3.524874154309943,0.39111763449451975,0.6116097901435595
3.529546982757368,0.3893723838076282,0.6103514866130956
3.530944339168941,0.39053212246494245,0.6102359124829311
3.50837189109202,0.40392782052817267,0.6098361589708318
3.508393071989022,0.4039252400406848,0.6098373459432788
3.5412893614930026,0.39995806488910873,0.6021950019688121
3.545092605062572,0.3995045806701186,0.602210075117221
3.5464015593246923,0.4013513845248876,0.6016094636973554
3.552263865610654,0.39865238352912474,0.6014553791603046
3.0827901516929352,0.41058007687534864,0.7197549519390308
3.1123952287445755,0.40644302038764385,0.7099052410903951
3.0859448166240693,0.42120429999512476,0.7179297122564792
3.093290940918427,0.4201405749740867,0.7131324557944706
3.0893421676593498,0.42071166895977474,0.7152253246699063
3.090274916263816,0.422230338748433,0.7147888275129809
3.0949079820253775,0.4199071718550797,0.7125905258559013
3.0994629236867977,0.41925115266780766,0.7113075236210165
3.100064855697425,0.41995056305985007,0.7111707958981502
3.1062629945250984,0.41827571654655654,0.7101334028832044
3.113608239452215,0.4172273363141928,0.7092067260462223
3.0823981788366406,0.4051133229517536,0.7214666539589953
3.0851368313982546,0.4047326816038297,0.7216699729981273
3.113761299970265,0.4007979083394262,0.7110533416399191
3.118083749382996,0.40021057923992204,0.711067060735878
3.0937631105858023,0.42561065830886546,0.7143307757814443
3.098812595941639,0.42487210276389303,0.7123689394314852
3.1047678289179097,0.42400447198710534,0.7108177261047363
3.51742042600957,0.39559657095716283,0.6114635421979616
3.5202599618621786,0.3952597374124998,0.6114736892922695
3.5282172718827174,0.3943189585912299,0.611070326014691
3.533939959250784,0.39364522077516184,0.60960736260933
3.514997519112276,0.4103824990547939,0.6075080753004507
3.5143590023442726,0.4104615503146583,0.6082314525399435
3.515196132085264,0.4116246359123541,0.6078452730430025
3.5383376464398695,0.4075143032857895,0.6020744831814182
3.5448674530437785,0.406719267092537,0.601870447825429
3.083291364790373,0.41604282207975146,0.7180323524924523
3.0839470311317565,0.41824504211591446,0.7186996045252193
3.1088202179727755,0.4124174829948793,0.7095103157288206
3.118075065331846,0.41111927020509587,0.7097990424037359
3.519798652829185,0.4194894794809183,0.608988928862359
3.523803822864071,0.4189826563490987,0.606695650270002
3.52858045019795,0.4183798645603218,0.6047796583708408
